ply
format ascii 1.0
element vertex 1330
property float x
property float y
property float z
property uchar red
property uchar green
property uchar blue
end_header
0.519694 0.359462 5.28911 252 251 136
0.665504 0.469645 4.28527 205 51 50
0.486845 0.668069 4.1712 199 217 220
0.256199 -0.117247 5.0853 253 80 117
0.582128 0.296375 5.34682 235 219 218
-3.79863 0.758613 5.85956 212 215 217
-4.85829 1.49766 5.01551 248 250 252
-4.85829 1.49766 5.01551 248 250 252
0.526578 0.0584706 5.13709 105 142 80
-3.00812 -1.04343 7.72442 0 20 16
0.696636 0.807436 4.56017 110 136 129
0.513501 0.588569 4.11944 28 44 75
0.644855 0.383173 4.17601 7 24 39
0.642032 0.385515 4.18192 11 33 46
0.625031 0.265775 5.39868 253 250 189
0.254506 -0.135984 5.14332 239 93 94
-4.66569 -0.783807 8.10354 5 7 6
0.436561 0.138545 4.12949 139 135 132
-4.68129 1.48739 5.05841 210 213 235
0.568248 0.28894 5.32068 187 64 73
0.728512 1.01932 4.66172 112 139 136
0.728512 1.01932 4.66172 112 139 136
0.355652 -0.203456 5.16985 212 93 85
0.656393 0.507832 4.22662 207 50 54
0.73808 1.18928 4.79732 106 132 123
0.646684 0.336935 4.19778 58 69 72
0.575984 0.839281 4.30698 29 46 60
0.552454 -0.0227275 5.12602 252 245 207
0.524968 0.614147 4.1458 243 245 245
0.524968 0.614147 4.1458 243 245 245
-3.26871 -1.04769 7.81956 205 65 57
-4.40619 1.48532 5.00429 109 177 185
-4.03217 0.239673 5.46408 177 181 184
0.708948 0.826205 4.55378 74 101 95
-4.96923 1.17477 4.83145 211 227 238
0.705374 0.863314 4.58839 112 136 131
0.655053 0.369472 4.22635 211 43 45
0.658127 0.368072 4.22227 214 42 47
0.24958 -0.199589 5.2049 231 83 84
0.664874 0.489998 4.25228 233 194 173
-2.91777 0.76815 4.66428 245 250 252
0.498277 0.6359 4.1514 34 56 62
1.07565 0.41048 5.94566 121 181 174
0.318003 0.421868 4.33292 105 113 100
0.497679 0.127631 4.14294 111 113 120
0.536487 0.359244 5.3125 182 170 85
0.540845 0.0732056 5.16291 253 252 240
0.663275 0.447156 4.31703 225 191 164
0.554453 0.288873 5.3044 245 252 184
-3.49151 -0.714536 7.40872 47 50 51
0.415472 0.111972 4.00297 250 249 245
-4.88139 1.32802 4.93189 154 123 126
0.682952 0.666565 4.36908 234 218 191
-3.23431 -1.26552 5.79343 167 169 162
-2.62716 2.0559 4.10261 119 171 178
-2.62716 2.0559 4.10261 119 171 178
-3.83439 -1.15905 7.32298 75 74 71
-3.53589 -0.452285 7.52856 33 37 35
-1.96575 -1.30312 8.16018 57 60 59
0.73354 1.12811 4.84307 85 127 120
0.416755 0.0940199 4.04088 246 247 242
0.429366 -0.0812752 5.02932 248 247 199
0.408751 -0.223413 5.21201 236 249 124
0.699839 1.32139 4.69246 154 227 213
0.526794 0.260611 5.2456 203 186 75
-3.26778 0.184644 6.94213 74 127 128
-3.80915 -1.2718 8.14251 123 45 44
0.687813 0.62004 4.38721 13 29 30
0.686196 0.648317 4.39386 224 210 178
0.669009 0.595611 4.28462 20 28 46
0.528683 0.277718 5.27446 252 248 204
0.389895 0.162803 4.02998 251 248 228
0.398321 0.158306 4.02058 250 247 234
-3.08623 -0.98705 7.76428 216 79 69
0.526735 0.0589802 5.13698 100 130 70
0.512454 0.287489 5.23878 251 251 128
0.759671 1.22394 4.84391 150 227 217
0.757981 0.600151 5.68116 126 178 173
1.11653 0.880307 5.2609 129 171 156
0.591944 0.255769 5.33718 208 61 73
-4.03332 -0.659205 7.11481 22 31 30
-3.16971 -0.869222 7.76867 193 60 48
0.370969 0.153586 4.03603 145 141 119
-2.20351 -0.71758 7.58381 38 40 43
1.34622 0.736263 5.44048 128 191 182
-1.73349 -1.01587 8.03368 40 71 79
1.14991 1.16565 4.87335 163 203 197
-2.0158 -1.15297 8.22007 9 8 10
0.856457 -1.34977 8.33293 9 19 18
-1.81114 -1.1984 8.30413 66 58 59
-1.81869 -1.20183 8.31705 63 58 59
0.384743 0.243047 3.99838 186 199 220
-1.79606 -1.65361 8.29828 227 76 66
0.671768 0.657636 4.32327 19 44 70
0.407603 0.185777 4.06469 90 83 82
0.536775 0.731149 4.22983 28 45 70
0.168179 -0.13765 5.17047 244 79 105
0.521703 0.770175 4.24307 26 45 69
-2.37873 -1.02727 8.32331 7 12 12
-2.14243 -1.18249 8.15916 21 26 25
-2.14243 -1.18249 8.15916 21 26 25
0.640049 0.372285 4.21489 26 28 48
0.263765 -0.279966 5.34972 74 121 117
0.506403 0.683368 4.18439 240 250 251
0.506403 0.683368 4.18439 240 250 251
-3.95985 -0.345266 5.54066 200 204 208
0.501889 0.632776 4.1465 34 48 61
0.513951 0.558032 4.10295 250 250 245
0.5142 0.557194 4.10244 244 246 241
0.37562 -0.111903 5.07095 250 249 229
0.443592 0.172182 4.05206 101 102 97
0.563797 0.891857 4.32994 28 47 65
-1.88467 -1.04213 8.30337 39 72 79
0.395739 0.198111 4.05185 234 245 252
0.380798 0.1885 4.07295 226 237 246
-3.40249 0.413914 6.61881 131 199 205
0.66408 0.624568 4.30971 25 37 61
-2.46565 -0.991706 8.24011 10 7 11
0.394064 -0.135251 5.12095 245 251 158
0.652078 0.243637 4.11285 101 119 118
0.62315 0.204713 4.14103 39 65 57
-1.8149 -1.03072 8.35145 64 111 111
0.66501 0.506542 4.28004 23 33 39
-3.34415 -0.29235 7.46992 62 97 96
-3.23567 -1.10818 7.84695 110 29 21
-3.13419 -0.485653 8.06714 68 93 103
-3.65784 -0.419032 7.53784 22 25 26
-1.56884 -1.1411 8.38288 7 10 10
-1.85297 -1.52258 8.26326 169 54 44
-1.84699 -1.16628 8.2467 30 36 38
-2.45071 -0.986772 8.18686 8 10 9
0.501905 0.00842865 5.07044 253 183 100
-3.83292 0.757386 6.14616 118 178 188
-1.8425 -1.68593 8.16426 237 86 73
0.679768 0.785777 5.42905 134 198 183
0.338788 0.519079 4.1242 39 69 83
0.370656 0.736402 4.26967 44 69 83
-1.96484 -1.34091 8.26378 7 8 7
1.12976 0.918697 5.2108 136 185 176
-2.50563 -0.917121 8.13679 48 84 86
-1.62504 -1.5797 8.86405 8 10 7
-4.35444 -1.71619 8.23484 4 6 5
0.918351 1.19687 4.89659 155 198 194
-2.35815 -1.50031 7.98353 26 27 29
0.977169 1.24514 4.77666 151 186 177
0.488743 0.609435 4.12441 244 246 246
0.408173 0.182495 4.06166 84 83 81
0.369867 0.196693 4.04847 101 101 90
0.455582 0.663665 4.16318 28 43 77
0.424321 0.676372 4.17938 215 237 240
0.500599 -0.176925 5.16927 255 239 125
0.472615 0.346909 3.96876 90 87 71
0.486965 0.339848 5.22952 251 249 203
0.480103 0.649006 4.15311 234 245 243
0.837162 -0.131792 6.68572 93 147 147
0.404151 0.669104 4.18016 37 67 76
-1.88991 -1.13634 8.21916 240 236 238
-1.88991 -1.13634 8.21916 240 236 238
0.513013 0.745938 4.22746 176 191 207
-3.99573 -1.87047 8.96224 61 63 63
0.452524 0.641383 4.15505 234 246 248
0.513616 0.65809 4.16635 41 56 74
-3.7942 -1.49451 8.2169 107 34 33
-3.08349 -1.01384 7.66971 157 42 38
-2.79284 -0.404053 7.58461 31 65 65
-3.08355 0.162271 6.68162 62 60 51
-4.75759 -1.00576 8.27589 2 7 5
-1.58208 -1.6318 8.7101 3 6 9
-3.15935 -0.695544 9.01171 254 250 250
-2.77783 -1.98577 8.46222 11 13 9
-3.16283 -1.03789 7.80593 132 28 26
-3.05433 -0.320616 7.53058 74 111 109
-3.36485 -0.571593 8.57574 194 203 224
-1.6417 -1.06768 8.39145 62 102 104
-3.10465 -0.349684 7.50767 29 54 48
-3.23961 -1.09195 7.80502 121 28 18
0.277844 -0.257257 5.30116 249 204 117
0.606814 0.305199 5.39059 243 234 172
-3.12349 -1.12624 7.85218 8 10 2
-3.11754 -1.08961 7.80819 213 83 71
-1.66328 -1.3884 8.62103 28 48 42
-2.61077 -3.28072 11.3297 8 9 8
-3.12644 -0.927032 7.76464 219 79 66
-3.12644 -0.927032 7.76464 219 79 66
-1.87887 -1.33917 8.23667 8 10 9
0.774442 0.543923 5.84972 133 206 200
0.394754 0.586346 4.14485 29 49 70
-1.80706 -1.10077 8.26918 23 30 33
0.481901 0.568401 4.07128 28 38 67
-1.86331 -1.23643 8.23366 10 12 12
-3.47107 -0.821258 7.4797 5 7 8
-2.15313 -0.974692 8.04778 45 82 79
-3.11046 -0.87721 7.95988 129 46 39
-3.6423 -2.37035 9.76518 52 53 53
-1.85891 -1.59365 8.14918 237 79 65
-4.72885 -1.21031 8.1903 6 9 6
-3.3242 -1.05265 7.80761 1 8 11
-3.60692 -0.495462 7.41912 59 55 53
0.381983 0.396523 3.99093 135 167 169
0.269575 -0.989632 7.99008 117 173 178
-2.84668 -3.36759 11.4842 11 10 11
0.42078 0.681919 4.19119 249 253 251
0.611937 0.817419 4.32931 29 38 65
0.245573 -1.07946 8.12008 153 167 174
0.559042 0.87371 4.33372 204 212 217
0.222963 -1.02082 8.05006 89 119 124
-1.82908 1.34952 4.94733 128 177 175
0.615677 0.814734 4.33002 35 47 71
-3.79033 -2.49267 10.3022 7 9 7
-1.85633 -1.46339 8.23072 5 13 13
0.471571 1.12772 4.5009 46 62 82
-1.81039 -1.76084 8.18424 243 89 74
0.49253 1.04728 4.43838 243 238 220
0.375572 0.639169 4.17209 31 45 77
0.451817 0.643466 4.15721 247 253 243
-0.987617 -2.55929 10.3383 51 65 62
0.558434 0.734846 4.23837 190 200 216
0.558434 0.734846 4.23837 190 200 216
0.419528 0.141658 4.04974 250 190 120
0.442562 0.0639187 5.03257 254 235 135
0.6165 0.27973 4.05079 191 193 196
-3.1147 -0.393706 7.66436 53 82 91
-3.1147 -0.393706 7.66436 53 82 91
0.339279 -0.127932 5.1056 251 243 121
0.497169 0.192487 4.00755 125 111 89
0.355576 0.142916 4.10173 139 133 124
-3.26466 -0.991004 7.76653 2 9 7
1.17479 1.28586 4.71237 156 221 210
-3.30513 -0.693324 7.96431 17 37 33
0.184929 -0.0680224 5.09282 250 241 156
-4.25257 -2.02882 9.65784 5 7 6
-4.41793 -2.14141 8.47473 88 92 94
-3.83068 -1.32648 8.31569 179 59 53
-3.83068 -1.32648 8.31569 179 59 53
-1.65119 -1.37925 8.58295 30 52 45
-0.505502 -1.59657 8.47739 93 153 157
-2.04207 -0.975682 8.45439 46 80 77
1.06956 0.892437 5.24774 140 191 174
1.05453 -1.40692 8.46419 13 22 26
1.05453 -1.40692 8.46419 13 22 26
0.226125 -2.08494 7.22459 74 82 74
0.385468 0.86451 4.33839 141 174 164
0.385359 0.866958 4.33903 145 179 172
0.553604 0.677263 4.20295 22 30 34
-1.85712 -2.07254 8.51341 10 12 15
0.441145 1.23972 4.61092 220 229 224
-2.98314 -2.35594 9.18211 54 61 60
0.687489 -1.58888 8.5004 20 15 23
-1.55532 -1.69217 8.38858 8 11 14
0.444102 -0.194511 5.16096 255 249 125
-1.86589 -1.07164 8.23031 45 50 55
3.51575 -1.50613 7.26449 89 85 81
0.343234 0.488091 4.07873 39 45 74
0.428876 0.754463 4.231 36 49 81
0.428578 0.756192 4.23711 29 39 68
1.12485 -2.10161 9.15128 156 165 185
0.483678 0.756307 4.23294 33 46 78
0.483688 0.75586 4.23285 35 46 78
0.127826 -1.03971 8.01042 163 180 181
0.374346 0.672702 4.20315 250 250 238
0.321422 -0.186112 5.21528 236 99 82
1.28847 -1.6865 8.88597 75 112 106
0.305807 -1.06317 8.03326 82 116 119
1.03335 -2.01589 9.0315 26 29 34
0.687782 -1.50809 8.67415 90 134 135
0.0809792 -2.55462 6.89318 85 93 93
-2.48536 -3.68911 11.9195 17 23 18
0.398552 0.177291 4.06875 97 93 91
0.399439 0.176273 4.06178 102 97 92
0.390046 1.14711 4.59285 221 203 133
0.162201 -1.01028 8.02599 115 136 137
0.747435 -4.00083 12.0129 103 96 86
0.427349 1.08054 4.48677 235 214 117
0.0208862 -2.56363 6.91014 107 123 134
0.425126 0.17867 4.04417 105 101 91
0.512356 0.749313 4.2306 197 209 218
0.51242 0.749338 4.23142 210 220 231
-1.66042 -1.27034 8.52748 50 89 82
0.856067 -4.06131 12.1253 106 91 84
0.402895 0.750132 4.24287 190 205 212
0.231686 -0.997601 7.97159 82 116 122
0.138706 -0.972228 8.01167 126 187 184
-3.88772 -1.65379 8.26074 94 28 24
-3.7625 -2.57499 10.4496 11 13 10
0.346958 0.663222 4.21222 224 235 232
0.453477 0.624574 4.14543 37 46 84
-1.0712 -1.15677 6.08375 10 20 11
-3.54876 -0.488748 7.54225 249 250 244
-3.54876 -0.488748 7.54225 249 250 244
1.24203 -2.40386 9.56651 107 138 144
0.246666 -0.200708 5.21165 248 91 102
-3.17399 -1.16333 7.87454 149 39 43
-3.17399 -1.16333 7.87454 149 39 43
0.855884 -0.176249 6.81011 104 152 145
0.855884 -0.176249 6.81011 104 152 145
0.443174 0.676567 4.17541 35 45 76
0.323284 -0.226911 5.20679 252 92 97
0.976678 1.40223 4.56593 160 220 208
0.835075 -0.135269 6.79481 102 147 146
-3.50554 -0.63092 7.46919 250 252 241
-3.50554 -0.63092 7.46919 250 252 241
-1.87597 -1.43374 8.55831 10 8 3
-3.96335 -0.409011 8.3331 42 67 63
-2.57569 -3.42222 11.4127 4 10 8
0.355661 0.504998 4.09311 27 47 70
0.964419 1.37926 4.59191 179 250 243
-1.70707 -1.52148 8.43186 4 6 6
0.129689 -1.03319 8.00244 161 182 184
0.823569 -1.38171 8.473 107 165 174
0.685053 -1.5275 8.52343 108 162 168
1.00401 -1.48159 8.49706 5 9 9
0.492482 0.261006 4.09766 255 254 253
-2.06853 -0.828171 8.10662 52 87 85
0.312867 0.216185 4.0956 238 246 253
2.26153 -6.01345 12.4063 11 12 14
2.34181 -3.39878 10.869 203 213 224
2.34181 -3.39878 10.869 203 213 224
1.48159 -2.33646 9.79588 93 140 139
0.482778 0.867317 4.31572 36 47 73
0.483212 0.868201 4.31891 34 46 72
0.407537 1.10777 4.5259 24 59 101
0.57944 0.822324 4.3274 128 161 160
0.329591 0.727819 4.27905 32 52 81
0.411318 0.644434 4.16082 249 248 242
0.294062 0.470942 4.1154 28 46 73
2.3784 -3.31118 10.4614 236 233 242
1.79254 -4.53334 12.6466 61 78 76
2.14133 -2.54564 9.90559 72 100 99
2.13723 -2.53374 9.88562 71 98 98
1.8075 -2.63846 10.0056 88 126 135
-2.22117 -2.96609 6.92542 249 250 254
0.401385 0.671529 4.18367 31 50 89
2.30112 -3.93219 10.7701 34 29 28
-2.53923 -1.73657 8.65138 217 85 66
0.40121 -0.210566 5.2084 249 237 118
0.0969378 -1.78696 7.50944 134 156 165
2.33615 -4.00451 10.9322 25 23 20
1.25554 -1.64304 8.71666 72 113 115
0.4775 0.895567 4.32463 179 190 202
-2.93276 -2.38608 9.17511 2 4 3
0.45712 0.753071 4.22779 200 213 222
0.351854 0.68523 4.21612 35 47 76
0.497929 0.635022 4.14805 27 41 64
2.30399 -3.37467 10.58 116 123 124
-1.64406 -5.09036 12.2576 78 66 56
1.69582 -0.89993 7.70003 104 167 173
0.420248 0.687548 4.20006 254 253 251
0.471498 0.346645 3.95716 124 122 102
2.11386 -2.73145 9.99066 14 18 25
2.11386 -2.73145 9.99066 14 18 25
0.324665 0.820628 4.37672 40 53 80
-0.747995 -3.85066 11.9888 93 85 75
0.496487 0.38134 3.96661 161 182 177
1.65632 -2.90344 10.2805 147 154 169
-1.83024 -1.69303 8.06613 253 101 91
0.561387 0.735259 4.23761 185 200 211
0.561387 0.735259 4.23761 185 200 211
0.432998 0.895265 4.34534 169 180 183
0.176955 0.150995 5.31875 106 89 57
0.356736 0.852057 4.36871 211 223 221
0.351531 0.737704 4.26784 148 174 173
2.51722 -3.65807 11.1068 195 203 215
0.414439 0.191177 4.04459 253 251 249
2.48266 -3.22124 10.8352 104 144 153
1.4576 -2.59509 9.83402 13 21 22
0.346567 0.622719 4.18336 246 249 251
-2.80654 -3.2685 11.7856 18 31 27
-1.87527 -1.72471 8.1074 206 60 51
-1.91486 -1.1219 8.17112 58 59 58
0.462138 -5.20193 10.8602 71 55 40
0.462138 -5.20193 10.8602 71 55 40
1.61701 -3.6952 11.6319 68 100 104
-1.39488 -4.1299 12.5504 51 59 61
0.459911 0.902951 4.33989 189 199 207
-2.17339 -0.804705 7.82603 44 47 51
2.05513 -4.25661 12.272 45 40 40
2.31992 -3.24318 10.702 72 88 89
0.533345 0.182071 4.05072 119 123 118
1.38845 -2.56458 9.86742 11 18 19
1.38867 -2.56543 9.86845 16 19 21
1.85627 -2.91651 10.3852 146 160 172
-2.5271 -3.16745 11.2943 12 30 24
-1.72655 0.410728 6.20342 127 111 104
-1.72655 0.410728 6.20342 127 111 104
2.27886 -4.0238 10.897 111 110 109
2.27886 -4.0238 10.897 111 110 109
0.354786 0.722241 4.2615 35 48 80
1.53335 -2.33166 9.71665 110 146 156
2.23181 -6.26349 12.1098 48 49 52
1.44874 -1.06681 7.50895 28 33 42
-2.17966 -3.40911 11.6713 55 88 93
1.79416 -2.86883 10.4516 94 130 137
0.00960106 -3.6712 11.1941 89 76 63
-0.0351076 -4.19926 10.7785 87 70 57
-0.0213736 -4.10793 10.9537 85 70 56
1.50632 -2.083 9.37111 94 144 151
2.23981 -5.90535 12.5177 21 16 13
2.39171 -6.14364 12.5487 45 36 31
0.32203 0.460287 4.0869 98 92 112
0.32203 0.460287 4.0869 98 92 112
2.38551 -5.04642 13.3281 22 20 17
1.94994 -6.13721 12.1508 85 74 68
1.92684 -2.8166 10.15 146 161 173
1.81939 -3.93445 11.8368 56 88 89
-2.30304 -3.26427 11.4256 45 79 84
0.663241 -1.50087 8.75569 118 180 184
1.85494 -2.60704 10.016 65 67 74
-2.16894 -1.09035 8.37603 60 92 91
0.810078 -1.74857 8.76249 16 11 20
0.384643 0.514759 4.03721 27 40 83
-0.986651 -3.92951 11.9308 72 65 56
1.91889 -0.707577 7.56514 115 187 199
1.26873 -2.27738 9.42485 11 14 13
1.26873 -2.27738 9.42485 11 14 13
3.46009 -5.46864 11.8039 2 5 3
3.49606 -5.30007 11.9701 4 4 3
0.498466 -0.118164 5.0658 247 243 211
0.16356 0.103455 5.33936 248 226 118
3.08099 -5.76529 11.9548 89 74 67
0.434367 0.732271 4.25012 28 44 73
0.441785 -0.17334 5.11973 247 249 126
0.307017 0.568045 4.19297 28 42 80
-1.88934 -4.04882 12.4152 41 52 51
2.70707 -3.81859 11.2421 107 113 116
1.95764 -4.76254 12.8014 87 80 75
0.160388 0.171351 5.37997 243 225 120
0.380556 1.17403 4.59686 140 189 187
2.88643 -3.77663 11.1454 77 79 75
2.88643 -3.77663 11.1454 77 79 75
1.78974 -4.63722 12.6764 95 91 85
1.78974 -4.63722 12.6764 95 91 85
-0.586737 -3.74132 11.8561 54 51 47
-0.38505 -4.9846 10.7787 101 93 90
0.165357 0.256792 5.43339 255 230 106
0.179899 0.347378 5.50787 250 228 110
0.409348 0.417425 4.12689 177 204 207
2.73126 -3.83075 11.0236 143 148 165
0.327875 0.546878 4.12973 221 96 89
3.40436 -3.63324 11.2013 90 131 143
-0.673786 -5.27022 10.8107 77 64 58
-0.380991 -4.37646 11.0719 102 89 79
2.14005 -6.15095 12.202 41 48 55
-0.332096 -4.98462 10.6688 127 114 107
-0.361239 -4.56479 10.7171 106 92 83
0.404017 0.174094 4.08416 129 123 117
0.299323 0.666557 4.25447 28 44 77
0.259972 -0.281826 5.31857 116 161 160
0.176153 0.298663 5.47646 245 220 115
1.55035 -2.3644 9.6957 53 72 69
0.394359 1.33649 4.75925 139 157 151
0.43051 -0.155691 5.12685 239 241 173
0.245329 0.192896 5.27104 194 187 101
-1.93111 -1.77739 8.13837 180 52 46
0.303079 0.827079 4.38826 232 244 243
-0.743707 -5.26777 10.8579 90 78 70
2.69217 -4.02337 11.0487 38 32 30
1.93599 -2.99981 10.4996 73 99 103
1.93599 -2.99981 10.4996 73 99 103
2.1522 -5.99136 12.418 42 47 60
0.269381 0.236918 5.29907 249 251 218
0.928932 1.18882 4.88095 163 205 198
0.338283 0.599019 4.17047 251 251 251
-1.88333 -1.46092 8.50624 136 48 38
2.93927 -3.84245 11.1093 139 171 206
3.48575 -3.45068 9.79515 41 43 45
0.556241 0.870267 4.324 200 214 221
0.257645 0.571926 5.59736 105 150 91
0.306867 0.807042 4.39364 34 48 74
0.183355 -0.0849595 5.12744 252 250 176
0.186183 0.238679 5.38314 149 141 104
1.3109 -1.76422 8.89225 67 104 107
3.76703 -4.32428 12.0881 19 23 23
-1.95026 -0.923773 8.04897 22 30 38
0.183581 0.196745 5.34845 128 119 71
3.54898 -3.2967 9.82603 70 128 140
1.9938 -5.66787 12.4785 87 74 67
1.34077 -3.39457 11.3208 95 138 147
2.68879 -3.36683 10.6789 136 149 157
3.36257 -5.56582 11.8911 23 19 15
0.378102 0.656604 4.17556 244 248 247
0.378102 0.656604 4.17556 244 248 247
0.419566 0.163805 4.05324 253 251 248
0.199055 0.457415 5.56183 233 194 105
2.32919 -3.28246 10.4793 111 117 122
2.04686 -2.58153 9.84908 63 88 92
2.76049 -3.52539 10.7921 48 59 96
2.29173 -3.46065 10.7849 222 228 245
2.29173 -3.46065 10.7849 191 195 197
0.419082 0.141627 4.05 251 199 120
0.516851 0.229236 3.98974 155 151 149
0.270464 0.555008 4.23639 38 63 83
0.270464 0.555008 4.23639 38 63 83
2.83139 -4.01607 11.0472 38 32 28
0.210187 -0.242222 5.27904 231 230 228
2.92946 -4.03177 11.2315 74 121 127
1.38058 -1.95395 9.14697 66 105 106
0.335671 0.649181 4.20837 254 251 249
0.292904 0.629355 4.24348 35 46 79
0.29394 0.630267 4.24633 35 47 79
0.427247 -0.229728 5.24439 102 171 182
0.278289 0.564497 4.2085 238 252 248
0.386805 -0.169539 5.1528 253 251 124
0.318404 0.276141 5.26168 214 77 85
0.366266 1.30772 4.74633 106 132 126
2.81739 -5.75452 12.1897 34 22 13
0.271785 0.249104 4.06824 143 147 144
2.71041 -4.01845 10.9236 117 114 118
3.46455 -3.32315 9.85201 68 114 125
3.44036 -3.29156 9.79954 67 112 125
0.159746 -0.170246 5.19424 255 200 112
0.312005 -0.210502 5.20784 237 148 153
0.320006 0.652318 4.22442 40 49 83
0.492426 0.555417 4.09279 27 41 71
0.433533 0.849073 4.30826 36 51 75
2.74122 -3.92522 10.9996 110 106 108
1.40564 -2.48357 9.82629 90 126 132
1.39798 -2.47157 9.78769 88 125 130
2.23703 -5.75696 12.7596 11 11 12
2.60081 -3.58835 11.0367 181 188 210
0.316577 0.609101 4.20164 230 238 241
0.489895 1.0279 4.426 252 252 236
3.40746 -5.53854 11.7276 75 68 63
0.458538 0.900569 4.3328 177 189 198
-1.67679 -4.42525 12.7822 49 51 54
3.54079 -4.75847 12.0283 57 69 70
0.428956 0.175545 4.04757 111 106 107
0.599583 0.808075 4.32796 119 160 160
2.39491 -3.38545 10.628 239 247 238
3.66617 -3.47332 10.9723 84 128 137
0.182265 -0.217037 5.24593 250 245 249
0.18525 -0.0415838 5.16068 255 250 221
1.42726 -2.57208 9.84333 144 155 170
1.42726 -2.57208 9.84333 144 155 170
2.26488 -5.92255 12.4281 46 41 41
0.365571 0.657326 4.19867 47 52 84
0.499614 1.23243 4.58323 238 248 251
1.3653 -2.12799 9.38324 68 92 95
3.43428 -3.97709 11.3592 179 194 212
1.12877 -1.38905 8.39095 99 149 156
2.04261 -0.537515 6.84718 29 45 44
3.51575 -1.50613 7.26449 79 78 76
0.485985 -0.13697 5.06758 246 236 233
0.257223 -0.114 5.08548 241 98 96
2.01533 -2.78983 10.1452 142 148 161
2.48409 -4.17362 11.0138 49 31 19
2.74219 -5.80223 12.2867 36 25 16
-0.486113 -4.6329 11.2448 89 78 69
0.293269 0.470776 4.11367 33 41 75
1.99091 -2.72669 10.2464 83 131 140
0.22877 0.557852 5.60628 230 185 103
0.313187 -0.209336 5.21359 235 124 146
2.35086 -6.05817 12.4111 45 35 33
2.86678 -3.48356 10.7894 120 139 148
2.73513 -3.55562 10.9057 179 191 209
3.43549 -5.56261 11.8771 8 5 6
0.294303 0.0460543 5.14086 254 248 140
0.892473 -1.65113 8.59427 11 12 16
3.3926 -3.28556 10.0998 97 140 149
0.471856 1.23842 4.68882 217 225 199
3.22892 -2.16649 8.75562 10 12 15
3.22892 -2.16649 8.75562 9 12 17
1.25427 -2.08145 9.19116 11 11 16
3.51462 -1.75219 8.53619 84 134 142
2.98389 -5.65434 11.9954 31 21 14
-0.267638 -5.05388 10.6335 81 76 78
-0.347928 -4.54343 11.0454 126 113 105
0.693208 -1.58188 8.69692 104 160 171
3.54027 -3.00204 7.6171 3 9 7
0.250569 0.45603 4.17093 215 80 95
0.424017 0.620017 4.13965 221 232 227
0.270953 0.645412 4.28456 24 42 72
0.0133653 -3.79986 11.1569 82 72 63
0.481214 0.680671 5.47826 182 64 88
0.373395 0.36163 5.27782 206 71 76
2.23016 -5.4534 12.8939 7 10 11
0.272902 0.621387 4.2881 243 251 252
0.275432 0.62528 4.29717 231 245 247
1.23611 -2.43259 9.70982 88 138 143
3.52121 -3.10145 7.5154 154 106 38
3.52121 -3.10145 7.5154 154 106 38
0.36713 0.324615 5.24863 197 85 75
3.52004 -3.05733 7.60792 153 113 46
-0.0913716 -4.76581 10.4727 83 70 62
0.347404 0.331485 5.27541 217 193 194
0.372627 0.677875 4.20122 226 236 225
0.525419 1.23564 4.57404 183 199 208
0.322347 1.1809 4.69806 56 79 108
0.552905 1.2551 4.58416 37 55 62
3.49524 -3.29666 7.22048 10 12 17
0.013633 -5.15558 10.5033 63 51 45
0.013633 -5.15558 10.5033 63 51 45
0.353213 0.378377 5.3131 234 230 227
0.353589 0.378333 5.3138 228 225 218
0.508807 0.671738 5.47505 239 199 118
0.508807 0.671738 5.47505 239 200 113
2.53396 -3.06152 10.411 89 134 140
3.34526 -2.19376 8.60384 60 89 92
-0.113413 -4.66441 10.6944 142 131 123
0.441893 1.10915 4.49863 57 59 102
0.524922 0.39765 4.03417 119 138 133
0.401465 0.177297 4.04065 114 111 115
0.260233 0.438425 4.15159 30 42 76
0.259996 0.438147 4.15111 28 43 80
0.371067 0.41054 5.3166 179 79 98
2.8147 -3.37375 10.7354 115 133 143
0.323767 0.250313 5.24871 220 73 96
0.323767 0.250313 5.24871 220 73 96
0.456629 0.663831 4.1628 31 45 72
0.456629 0.663831 4.1628 31 45 72
0.0799664 -2.54844 6.8929 67 93 96
3.13872 -3.69669 11.077 112 130 134
3.27576 -3.72247 11.2197 114 135 138
-0.0455773 -5.17868 10.4952 97 82 72
0.351182 1.0494 4.54301 53 68 117
3.28345 -2.89923 9.96738 33 39 45
0.44568 -0.128533 5.0842 238 219 229
0.335437 0.830911 4.36302 231 241 249
0.227575 -0.00844599 5.13727 146 79 112
0.335413 1.17079 4.67923 214 242 240
4.76986 -3.88443 11.0611 59 63 57
3.42185 -5.30341 11.9415 7 5 5
-0.661281 -3.99493 11.9898 48 41 34
0.314048 0.776401 4.338 25 37 40
3.29647 -5.82521 11.5516 96 73 62
3.39729 -5.13145 12.0822 51 39 40
0.409589 0.669167 4.17963 40 49 77
0.452086 0.442831 5.38434 246 240 232
0.441744 0.440347 5.35364 249 241 227
-0.597273 -3.77767 11.863 43 40 36
-0.597273 -3.77767 11.863 43 40 36
3.42888 -5.32288 12.0896 70 55 48
0.355406 -1.11376 8.12196 103 156 162
0.513908 0.159692 4.0102 58 53 57
0.0928926 -3.32499 11.1394 77 120 128
3.2588 -4.89099 11.8077 53 43 42
3.2588 -4.89099 11.8077 53 43 42
0.312606 0.165126 4.01248 235 246 253
3.48232 -3.24727 7.37339 5 13 13
-0.0563489 -4.54086 10.7724 81 65 57
0.544291 -3.84421 11.8079 103 94 84
1.0011 -1.52876 8.45119 108 166 178
1.0011 -1.52876 8.45119 108 166 178
3.99256 -4.21875 11.739 56 66 65
3.4942 -3.0413 7.56875 148 110 34
2.50696 -3.63451 11.001 185 187 208
0.483517 -0.089882 5.04197 251 241 201
4.11786 -4.20522 11.898 17 18 12
3.43012 -3.20349 7.42474 68 73 76
3.09956 -2.16682 8.73838 75 106 113
3.47377 -0.882414 7.39645 78 137 152
3.45031 -3.15051 7.46284 8 14 16
3.43405 -3.11609 9.95311 100 135 147
0.290585 0.332674 5.33451 252 247 121
0.281857 0.528098 4.26996 26 47 66
2.34281 -0.424699 6.92858 103 159 161
3.91357 -4.14834 11.848 82 126 133
0.25376 0.041156 5.04042 254 243 125
0.360425 0.35506 5.31466 241 209 210
0.358649 0.352701 5.30896 231 185 190
3.48918 -1.33866 7.28457 42 44 47
3.44505 -2.96306 7.62029 18 19 21
3.44505 -2.96306 7.62029 18 19 21
0.230723 0.339387 5.42264 246 237 102
4.66187 -2.97868 7.37758 84 91 90
4.8017 -1.90156 8.21374 43 80 84
3.48147 -1.03917 7.42169 14 15 18
0.0829424 -1.0675 8.19231 67 105 104
0.864541 -1.32036 8.41724 99 163 173
3.47152 -1.50579 7.28548 6 12 14
0.477631 1.13342 4.50268 72 87 94
0.346654 0.659751 5.63721 237 219 123
3.50688 -0.949215 7.33674 11 19 20
0.468025 0.798791 4.25191 27 42 43
4.66818 -1.24618 7.34779 36 60 63
0.408939 0.850057 4.31261 55 72 86
3.47275 -3.27044 7.26101 18 22 24
5.67739 -3.41596 10.5612 16 23 23
2.86323 -3.54932 10.7966 181 188 207
0.189897 0.363478 5.46052 122 110 80
0.242956 0.446987 4.21747 19 44 74
0.429325 1.30556 4.58209 121 143 130
0.42975 -0.196723 5.15389 234 225 130
2.68776 -3.61367 10.9472 178 191 213
3.23384 -2.92744 9.85223 75 117 122
2.753 -3.51916 10.7759 38 46 88
2.30821 -3.50705 11.0035 73 111 118
0.425104 1.07187 4.47012 201 181 109
3.09678 -3.41498 10.9695 88 130 137
0.440702 0.278161 5.22279 248 234 102
2.30489 -3.34527 10.5434 103 102 105
0.514008 0.882485 4.32033 101 131 129
0.680242 -1.52879 8.69723 73 122 133
4.62042 -1.25745 7.25173 8 9 8
2.13066 -3.87109 10.6115 26 28 24
0.245172 0.488331 4.22139 234 60 77
0.378739 -3.59828 11.6051 67 99 103
0.264712 0.443385 4.19801 240 56 74
0.162342 -0.156765 5.1507 248 204 108
0.229434 -0.00757193 5.14227 139 63 86
0.380824 0.613943 4.14259 24 30 76
0.3451 0.549629 4.11762 31 46 73
0.240009 -0.151091 5.13384 236 135 135
0.347552 -0.11418 5.07357 184 169 80
0.386917 0.997476 4.43367 187 158 104
0.39354 0.181568 4.05541 246 242 245
0.433354 0.900499 4.34196 142 148 159
0.313694 0.638332 4.22519 235 247 251
0.201204 0.287898 5.41958 144 129 97
0.201204 0.287898 5.41958 144 129 97
0.297508 0.615645 4.23009 228 243 247
0.296188 0.614589 4.22755 232 248 243
2.84101 -3.70025 11.0097 77 87 91
4.94716 -3.76225 11.0178 133 120 105
0.252503 0.290702 5.34878 120 117 89
2.57515 -5.93074 12.2445 77 63 56
0.456714 -0.123395 5.06553 212 75 91
0.37881 0.305309 5.22466 243 251 215
0.283274 0.438216 4.13346 86 109 121
0.283274 0.438216 4.13346 86 109 121
3.89059 -1.88223 8.70191 42 70 68
3.24074 -2.5899 8.21823 75 114 120
1.46489 -2.64922 9.83999 84 147 145
3.19805 -3.66368 11.2111 108 132 135
0.357573 0.285509 5.21966 240 72 103
1.9032 -0.582772 7.12914 91 160 166
3.54137 -1.19001 7.30014 7 12 11
2.62114 -3.30063 10.6836 206 204 214
3.5493 -1.49021 7.23404 12 12 12
3.54752 -2.941 6.9565 52 52 64
3.46147 -1.31861 7.40557 66 122 124
3.43783 -5.89074 11.2552 62 65 65
3.53964 -1.9882 7.15242 58 59 66
3.42457 -5.47161 12.0071 79 58 52
0.293179 0.489467 4.12436 29 36 71
0.293179 0.489467 4.12436 29 36 71
0.439071 0.128102 4.01468 160 154 150
0.344636 0.734892 4.26538 185 198 217
0.346222 0.735834 4.2657 167 180 194
0.532719 0.138326 4.15496 156 153 136
2.9872 -2.65427 9.90011 93 135 143
0.198142 0.367146 5.48556 115 104 54
0.296493 0.625655 5.57353 233 220 114
3.1952 -3.32444 10.9596 100 143 154
3.45694 -1.0171 7.33684 34 36 38
0.460643 1.21851 4.61077 165 179 144
0.460643 1.21851 4.61077 165 179 144
3.52473 -4.79146 11.8076 68 76 79
2.54577 -3.32899 10.5756 227 235 244
2.54577 -3.32899 10.5756 227 235 244
0.281039 0.698738 4.3874 25 39 74
3.12034 -3.54312 11.0685 60 92 94
0.263615 0.590422 4.30787 29 42 75
0.265572 0.594096 4.31205 27 39 79
4.73942 -2.81136 6.90849 26 12 7
4.11001 -2.4027 7.92824 53 82 83
0.473907 1.18386 4.57665 211 201 130
3.46863 -1.12453 7.38379 25 22 27
3.53398 -1.24934 7.27441 12 9 12
5.48122 -3.19332 10.0406 63 70 64
0.341033 1.27044 4.81014 135 149 146
0.450573 1.242 4.60756 203 218 213
3.15253 -2.0333 8.70217 16 23 20
3.7712 -2.28578 7.70855 17 18 17
4.70726 -1.17109 7.21382 16 15 23
3.55638 -3.00618 6.87274 31 31 44
4.69036 -1.31184 7.14681 7 7 10
3.26582 -2.28497 8.44181 3 17 12
0.243233 0.425166 4.21045 232 73 74
0.227997 0.273916 5.37914 161 153 66
0.334865 0.393268 5.3435 164 77 65
0.47663 0.678096 5.46592 196 87 76
0.332056 0.550772 4.13588 228 65 68
0.185501 0.238138 5.38295 155 147 110
2.21913 -3.79617 10.59 80 125 133
0.349268 1.2429 4.87511 120 143 139
4.6371 -1.10572 7.29623 10 14 16
4.50198 -2.09112 8.62255 15 24 21
0.327275 1.05233 4.57782 158 185 186
3.46405 -1.93737 8.84044 66 95 95
4.76484 -3.24498 6.96835 32 33 34
2.66926 -3.85969 10.8431 112 114 119
4.63204 -1.02815 7.32114 17 22 26
4.95449 -3.88758 11.2344 155 147 127
3.4958 -5.93341 11.7284 65 51 45
0.366878 0.409329 5.31338 186 74 86
-0.677191 -0.132667 6.89819 96 119 117
5.08814 -1.89511 8.43687 25 56 51
0.286187 0.844464 4.51042 142 177 180
0.304679 0.311524 5.31352 249 249 174
4.68159 -0.990448 7.29549 8 19 16
3.21198 -3.80365 11.127 176 191 205
0.281398 0.802577 4.46745 33 45 76
0.282071 0.803732 4.46876 30 43 72
1.14221 -1.78741 8.66271 12 16 24
3.47414 -5.28182 12.2132 71 54 47
3.57304 -0.253167 5.80927 34 47 52
1.45279 -2.27332 9.53008 112 142 149
2.27596 -3.20683 10.8171 72 96 99
3.54654 -4.94336 11.9426 65 67 69
0.352012 0.739301 4.27042 158 171 183
1.5823 -2.62387 9.99168 78 110 113
0.368559 0.495741 4.13643 24 42 70
0.275553 0.801216 4.48492 170 183 204
0.350476 0.259036 5.20649 212 85 96
3.64041 -3.20875 7.04501 41 42 44
4.69101 -2.14183 7.26156 11 11 13
0.297188 0.59871 4.21484 38 44 79
4.75698 -3.21728 7.00048 31 32 34
0.533174 0.749662 5.50117 96 150 125
0.258122 -0.0977403 5.11 249 227 126
0.41065 0.0920367 4.03715 254 246 246
0.367954 1.21626 4.64219 219 233 238
0.362981 0.656519 4.19561 37 47 68
0.418637 0.16204 4.06227 251 244 244
5.76287 -3.39323 10.1994 117 104 91
2.16952 -2.74124 10.1523 151 164 180
4.56142 -3.94686 11.4474 21 25 29
3.26827 -2.73421 10.143 55 77 80
3.26827 -2.73421 10.143 55 77 80
3.49697 -1.90038 8.69737 61 95 101
0.498577 0.704238 5.46596 207 185 112
0.201446 0.267505 5.3893 249 236 124
4.67261 -1.21166 7.51527 33 60 55
3.48809 -1.0231 7.31075 11 13 16
0.559138 1.46542 4.97436 180 189 184
0.337116 1.03013 4.52734 44 55 83
0.280236 0.630166 5.62015 241 213 106
4.7007 -1.25096 7.17605 3 8 7
4.75381 -2.7346 6.83454 252 192 71
4.75381 -2.7346 6.83454 253 194 67
3.54835 -3.20175 7.13162 41 42 44
3.53473 -3.15857 7.17382 30 34 35
3.63394 -3.17505 7.00254 5 6 6
4.85472 -3.29904 6.83381 43 44 44
0.203241 0.0771208 5.22841 251 247 150
4.42914 -2.30871 8.50603 50 76 81
0.285315 0.222316 5.25113 255 248 232
3.29358 -0.119874 6.17669 59 118 116
3.48335 -1.02129 7.35821 34 39 40
3.44048 -1.20151 7.2781 45 43 46
3.44048 -1.20151 7.2781 45 43 46
3.24435 -2.36086 8.39467 12 18 19
3.24435 -2.36086 8.39467 12 18 19
0.176646 0.207902 5.42389 250 220 104
0.289473 0.765283 4.40971 143 177 180
0.191777 -0.15084 5.13635 252 89 96
0.18427 0.333441 5.50386 254 218 102
4.53137 -0.0959794 5.86725 91 98 84
0.280965 0.757719 4.47003 28 39 79
0.211479 0.234775 5.36404 253 241 106
0.393929 -0.211164 5.1929 239 227 100
4.46576 -0.151065 5.75723 56 62 51
0.321378 0.613892 4.19554 206 224 222
0.296199 0.533099 4.15577 242 67 70
4.66245 -1.34135 7.25289 7 12 15
3.24548 -2.10665 8.71319 8 15 15
3.44912 -1.08965 7.44107 59 117 121
4.52306 -0.027871 5.90001 32 56 44
4.65271 -1.19583 7.27988 11 13 16
0.239095 0.423351 4.2081 237 67 72
0.364097 1.08482 4.51964 55 74 110
3.85587 -1.1637 5.00904 174 178 162
3.51055 -2.72632 6.993 12 13 14
0.404993 1.10375 4.51517 38 56 77
0.270485 0.180536 4.237 59 59 48
0.480216 0.670636 5.46406 176 77 75
0.226246 -0.164968 5.15023 242 88 103
0.348866 1.08664 4.58027 82 86 136
0.243264 0.447698 4.2179 20 41 69
0.271698 0.624372 4.29636 224 241 243
0.305872 0.829655 4.4067 219 232 233
0.199857 0.369716 5.48891 111 98 51
0.286911 0.805814 4.55627 139 176 178
4.42972 -2.30766 8.44167 6 14 13
3.85271 -1.10699 5.01389 176 175 157
0.293021 0.647264 4.26966 222 236 238
4.6036 -0.0606089 5.73329 55 64 56
0.340175 0.398494 5.34996 191 81 97
0.416417 0.648963 4.16099 172 195 193
3.5472 -3.35405 6.83652 66 52 24
0.306606 0.858455 4.43009 207 229 233
0.272204 0.762656 4.49325 175 193 207
0.272678 0.763406 4.49399 177 196 210
0.455915 0.204564 5.10098 79 146 133
0.236623 0.316768 5.3876 255 245 110
0.23499 -0.153506 5.13324 240 147 150
0.239628 -0.153119 5.13696 250 156 158
0.250353 0.476351 4.2145 26 43 92
0.249565 0.475958 4.21401 23 41 86
5.60267 -2.98949 9.96971 31 38 39
4.98522 -2.41305 7.47673 26 27 30
0.414257 0.117011 4.11264 190 180 166
4.80168 -3.35181 6.76146 180 153 104
4.82994 -3.36262 6.78001 181 151 102
0.293433 0.335373 5.346 244 239 83
0.311249 1.22082 4.86301 146 216 211
4.69435 -0.114837 5.72203 68 88 77
3.53611 -3.32001 6.8428 74 51 10
4.69137 -2.8352 6.7977 18 15 5
3.6122 -3.41321 6.82702 14 8 2
4.5857 -0.0794681 5.75977 106 113 105
4.07937 -0.642797 5.6958 145 147 132
0.336504 -0.117025 5.05991 184 170 78
0.335466 0.729886 4.28381 33 46 74
0.336333 0.234408 5.24666 242 252 214
3.51543 -2.28344 7.06745 32 33 36
5.11347 -1.08786 7.26301 24 53 44
4.75547 -3.16041 6.80937 6 8 9
4.75547 -3.16041 6.80937 6 8 9
0.816123 -0.13475 6.6795 129 169 161
0.81634 -0.133272 6.68087 147 169 159
3.82972 -1.10087 5.0432 112 111 93
0.373098 0.387292 5.30098 195 72 78
0.373098 0.387292 5.30098 195 72 78
0.278768 -0.183532 5.17407 233 138 139
0.239628 -0.153119 5.13696 250 156 158
0.267259 0.23867 5.29611 248 239 214
0.278354 -0.256466 5.27119 250 187 90
0.301658 0.636342 4.26031 35 45 82
0.318076 0.247631 5.24011 225 83 79
3.54697 -1.27633 7.22662 66 110 112
0.412173 0.10237 4.06005 147 143 121
0.304755 0.585122 4.19072 35 46 75
4.50159 -1.99549 7.50191 35 68 70
4.66034 -2.09412 8.44738 40 76 77
0.181593 -0.0810034 5.11961 252 249 161
0.446377 -0.168898 5.1224 250 230 135
0.423187 -0.114837 5.05214 220 189 186
0.400974 -0.121261 5.03554 206 197 184
0.297353 0.370197 5.3726 244 247 197
3.93024 0.0798922 5.21444 38 57 45
0.233582 0.341313 5.42401 249 240 99
0.233582 0.341313 5.42401 249 240 99
3.50077 -3.03877 7.55614 189 128 47
3.67423 -1.04887 4.03891 72 81 77
3.92935 -0.916948 4.26983 190 202 205
4.71975 -1.46325 7.112 10 14 16
4.14337 0.534445 5.23858 83 128 134
3.4717 -1.09811 7.27446 5 9 12
4.89751 -1.2412 6.55186 65 70 62
0.41468 0.153976 4.08569 78 81 78
4.71014 -1.39141 7.12893 13 12 14
3.78046 -1.07075 4.01511 211 222 242
0.371789 0.366499 5.28215 189 75 81
4.49176 -1.889 8.51582 48 92 98
0.15324 -0.150432 5.17863 242 181 86
0.360241 1.3323 4.73428 139 217 203
0.240172 0.234718 4.22133 137 164 160
3.63185 -3.15393 7.08208 56 54 59
4.57694 -3.05489 7.18462 41 42 43
3.88114 -1.08448 4.25924 92 107 114
0.187821 0.0672071 5.24276 124 193 161
4.61848 -1.26523 7.24348 3 6 5
0.168124 0.189996 5.33365 141 127 88
4.36924 -3.42088 6.95565 40 44 48
3.94607 -0.423718 5.54821 168 166 149
0.318424 -0.124326 5.07442 253 246 108
0.396193 1.34853 4.69957 136 208 198
0.234303 0.29589 5.36039 255 246 124
3.44445 -1.16273 7.40389 71 123 123
4.4903 -3.50927 7.03325 14 20 25
0.852037 -0.199746 6.77542 91 146 138
4.44973 -2.41715 8.35296 37 69 63
3.58928 -3.1028 7.02242 12 13 18
3.58928 -3.1028 7.02242 12 13 18
0.358405 1.15528 4.56806 99 130 120
0.415953 -0.175296 5.13689 221 192 83
3.66311 -3.25578 7.02085 56 58 58
4.73314 -3.25416 7.00216 9 10 10
3.44097 -1.3393 7.33884 11 22 25
4.12647 -0.0312561 4.80418 125 133 124
0.422042 -0.127697 5.07402 242 81 96
4.61495 -0.0583471 5.73807 54 66 59
0.309507 0.355364 5.33625 238 239 148
0.239458 0.321717 5.39354 245 234 107
0.242732 -0.1815 5.18268 250 153 149
0.322194 0.407371 5.33054 241 241 186
4.74498 -3.21357 7.1809 30 31 32
0.25147 0.448277 4.19384 56 36 78
0.446599 -0.0964017 5.02053 252 233 95
3.52673 -1.98668 7.13817 72 70 73
3.52673 -1.98668 7.13817 74 73 75
0.201054 -0.174126 5.16077 249 96 101
0.285679 0.707371 4.48729 141 177 177
4.59336 -2.98266 7.3215 109 114 105
3.89197 -0.870725 5.23824 172 174 160
0.283589 -0.223076 5.23836 246 86 98
4.609 -1.96478 8.30556 44 81 82
0.267095 -0.27847 5.29739 108 158 149
4.05686 0.489296 5.28815 82 119 121
0.380913 -0.241768 5.17315 82 156 142
4.05233 0.532025 5.2851 109 181 190
5.35074 -1.6184 7.02255 59 63 55
0.181743 0.341144 5.48462 248 224 113
3.41139 -1.43912 7.28789 13 13 16
4.37125 -2.06729 8.49191 21 20 17
5.76101 -1.81689 7.4464 71 73 68
5.61214 -2.40643 7.69697 65 67 62
0.277627 0.766245 4.5318 35 45 81
5.01502 -0.70296 4.05612 86 92 91
4.03383 -0.144725 5.03045 92 111 111
3.47051 -1.3974 7.17518 10 10 8
0.315981 0.570737 4.52341 75 110 85
5.37211 0.563989 4.93992 80 125 131
0.281059 0.757277 4.47054 35 40 84
0.304728 0.758383 4.36385 25 35 34
0.23792 -0.197345 5.20131 249 98 103
0.317889 0.308003 5.2867 184 78 76
4.29508 -2.27543 8.10863 2 11 11
4.07853 0.40901 5.3645 132 151 151
5.11188 0.758481 4.52737 235 242 200
2.0907 -0.496337 6.96348 92 151 152
4.57972 -2.58764 6.19994 7 10 9
4.20913 -2.17816 8.45513 43 64 70
5.12484 0.870425 4.57447 171 197 155
5.08209 0.858268 4.56646 172 202 151
4.5906 -2.47578 6.25709 16 22 22
4.5906 -2.47578 6.25709 16 20 21
0.307163 0.748225 4.33015 118 137 141
0.14026 -0.121905 5.24727 187 163 75
0.14026 -0.121905 5.24727 187 163 75
0.292355 0.468545 4.11246 20 40 56
0.333279 0.292334 5.24884 185 185 177
4.10241 0.440901 5.17511 82 115 123
4.52493 -2.10925 8.14406 7 9 9
0.341727 -0.118572 5.0921 252 241 102
7.4626 -3.42323 8.89589 47 48 49
4.60315 -1.41497 7.21542 5 12 5
0.257767 0.26678 4.28623 25 32 68
4.08651 -2.06607 8.5058 46 74 71
4.0397 0.433766 5.41412 68 131 125
4.72161 -0.0227475 5.73357 68 76 70
1.58623 -0.974882 7.47408 35 37 41
0.19595 0.286761 5.41561 156 136 86
0.454418 1.37961 4.6906 128 204 195
2.33312 -0.584026 7.56733 77 127 130
3.8012 -0.992077 3.92913 89 94 105
4.28717 -2.21913 8.14181 5 10 7
0.179207 -0.126238 5.30866 216 217 232
0.172097 -0.127959 5.30426 241 241 244
0.419578 -0.128027 5.07332 236 80 94
0.191082 -0.169214 5.3071 224 220 222
0.191082 -0.169214 5.3071 224 220 222
3.95169 -1.28478 4.01675 79 85 91
0.356561 0.262209 5.21129 214 81 90
0.343507 0.844872 4.36642 186 205 207
0.247021 0.287826 5.3445 121 117 88
5.16251 0.801719 4.49819 165 172 134
0.267931 0.187811 5.21452 245 241 86
0.283175 0.568693 4.21222 223 234 240
3.56919 -3.04275 7.03193 9 11 11
4.54731 -2.85691 6.07093 56 57 51
4.86178 -3.09224 6.96849 29 31 30
4.86178 -3.09224 6.96849 29 31 30
3.8927 -1.18244 3.9675 102 104 115
5.09068 0.897846 4.49747 30 80 68
5.09068 0.897846 4.49747 30 80 68
0.475353 1.29664 4.62955 71 105 105
0.280408 0.73554 4.44423 134 169 171
0.280473 0.736295 4.44497 126 162 164
3.94233 -0.439918 5.42242 40 42 40
3.94233 -0.439918 5.42242 40 42 40
3.88569 -0.724735 5.35283 172 172 154
4.12685 0.292537 5.40057 95 175 182
5.40429 0.62232 4.9519 73 98 96
3.40535 -0.885705 7.33703 69 121 117
0.278296 0.81549 4.53149 146 175 176
5.78756 -0.994763 7.35249 39 70 72
3.89659 -1.02959 5.13491 167 169 146
4.14761 0.375927 5.45438 58 106 101
0.225183 0.475182 5.69422 151 156 162
3.8165 -1.15054 3.98468 80 83 92
0.253938 0.586127 4.3511 239 243 248
0.25331 0.587247 4.35214 244 245 245
0.279948 0.767082 4.53223 29 41 76
0.495555 0.674343 4.6756 69 96 94
0.161623 -0.0707741 5.28986 243 219 95
0.223446 -0.207816 5.32508 215 225 207
6.87431 0.923981 3.47774 130 131 155
3.47638 -1.11901 7.3841 8 7 13
4.573 -1.49605 7.17793 4 8 7
5.17694 0.827075 4.58017 118 132 97
0.287104 0.337865 5.74718 212 228 250
7.14729 1.20987 3.3029 63 60 70
7.14729 1.20987 3.3029 63 60 70
4.0674 0.493767 5.41673 114 181 180
0.149421 0.15112 5.34517 241 207 95
3.81197 -1.07864 3.96754 99 100 113
0.345994 0.753475 4.67372 119 144 136
0.388205 0.330782 4.11817 208 199 188
0.419254 1.17041 4.98608 129 195 181
0.185154 0.19774 5.35234 117 111 64
0.233802 -0.153831 5.13298 235 145 148
0.229168 0.207548 5.58805 243 239 97
0.378816 1.1423 4.90981 116 144 139
0.323705 0.84691 4.39393 178 198 200
0.834441 -0.17442 6.73495 133 184 179
0.290035 0.245571 4.31459 22 29 52
0.11378 -0.0853656 5.22931 202 165 80
0.415566 0.132754 4.11006 118 117 122
0.415566 0.132754 4.11006 118 117 122
3.10807 -0.152167 6.28851 95 152 153
3.71978 -0.242396 5.89974 28 41 48
0.41171 0.0896133 4.03807 253 247 250
0.279568 0.770256 4.54732 26 43 70
0.284514 0.794463 4.53129 21 37 66
0.191374 -0.189126 5.29555 25 118 188
0.239134 -0.178806 5.20146 248 98 85
6.89374 0.988891 3.43861 68 71 84
6.89374 0.988891 3.43861 68 71 84
4.72921 -1.47228 7.10272 3 5 3
4.72921 -1.47228 7.10272 3 5 3
3.84425 -0.964312 4.17339 127 141 151
0.15214 -0.0677823 5.3278 237 227 107
0.431884 0.207978 4.00618 183 175 162
0.415926 0.100101 4.10474 187 179 166
0.193052 0.433392 5.59897 244 227 83
5.66282 0.425302 4.43023 155 135 120
0.418101 0.157345 4.01981 254 252 242
4.96932 -0.950623 6.332 76 78 64
0.208565 -0.135575 5.05879 250 92 104
0.208565 -0.135575 5.05879 250 92 104
0.21847 0.218267 5.33641 249 241 102
0.312361 -0.213118 5.20903 247 159 172
1.04368 0.89606 5.21012 101 159 153
0.243776 -0.222566 5.29628 249 243 151
0.243776 -0.222566 5.29628 249 243 151
0.312166 0.297886 4.36525 16 36 50
0.466802 0.381129 4.46254 16 39 51
0.415875 0.305675 5.1966 221 230 191
0.397424 -0.217407 5.18432 247 250 105
0.316253 0.692315 5.63596 167 241 218
0.152908 -0.134669 5.14617 251 213 105
0.439365 0.947801 4.85939 215 231 222
0.418691 0.183708 4.17297 151 161 173
0.262075 0.558325 5.75253 229 235 229
0.234873 -0.187628 5.35099 203 215 239
0.234873 -0.187628 5.35099 203 215 239
0.301961 -0.0798507 5.03461 254 243 127
0.219591 -0.209756 5.29137 251 224 96
0.28159 0.438009 5.78427 139 152 148
0.119188 -0.0808146 5.23194 203 167 77
0.41236 0.157376 4.05993 249 242 251
0.186934 -0.149758 5.3182 25 122 202
0.222189 0.491245 5.7357 240 234 237
0.22063 -0.104223 5.10297 248 244 120
0.277826 0.768353 4.54736 24 41 68
0.175649 0.153231 5.33 102 88 49
0.146003 -0.141523 5.24923 250 242 101
0.403271 0.107012 4.12351 188 192 207
0.261798 -0.189523 5.1855 251 96 111
0.397133 -0.0830323 5.01879 249 244 219
0.457534 0.336357 5.17053 110 172 150
0.206626 -0.212339 5.30548 241 249 251
0.389439 -0.203148 5.18458 253 251 121
0.345183 0.176458 4.2927 154 163 150
0.226938 -0.227045 5.30221 248 212 92
0.309111 -0.215704 5.20768 237 157 158
0.206362 -0.172972 5.34587 249 248 251
0.209503 -0.193258 5.32864 27 129 216
0.167337 -0.176871 5.26629 246 245 245
0.146465 -0.0322506 5.30795 251 250 105
0.183387 0.205981 5.50517 253 252 101
0.443639 -0.136051 5.07429 216 216 218
0.59895 0.646485 4.62912 120 200 196
0.291554 -0.124756 5.07861 220 206 125
4.03512 -0.275931 5.65334 151 149 130
0.277283 0.718563 4.46814 114 152 155
0.161815 -0.198421 5.24485 252 242 90
0.323122 -0.219234 5.1194 253 250 121
0.59591 1.03437 5.11511 125 195 180
0.409153 0.149895 4.10836 241 243 246
0.298346 -0.0835465 5.05653 253 255 106
0.252164 -0.239142 5.2229 252 108 107
5.83602 1.26533 4.33964 108 193 195
0.223994 -0.214004 5.32581 237 235 251
6.27511 4.04103 0.164797 5 5 4
0.271904 -0.266246 5.27707 249 229 120
0.292073 -0.245406 5.25724 255 99 114
0.188479 0.172767 5.4691 254 255 100
5.73119 2.25654 3.42697 57 100 93
7.1934 -0.0148525 2.79365 106 103 97
0.45054 0.287754 4.39776 143 154 164
4.31887 0.604704 5.30935 87 125 125
0.418069 -0.0252285 4.97242 245 228 118
8.45823 1.40652 0.75789 76 72 70
0.506139 -0.152447 5.06827 253 249 84
4.01368 -0.994953 3.89192 111 112 112
0.145491 -0.124029 5.26517 251 250 88
0.448532 -0.131099 5.0744 227 200 211
6.57693 1.48299 4.07655 76 140 139
0.4178 0.167307 4.07596 131 118 112
0.224026 -0.214267 5.32531 244 240 254
0.47987 -0.145649 5.05083 251 246 220
0.280697 0.0922298 5.56135 253 248 104
0.342212 -0.254584 5.20537 242 115 99
0.481353 0.230884 4.3739 26 35 51
0.377447 -0.155338 5.12887 253 252 111
0.279372 0.11031 5.58596 251 249 99
0.439253 0.787008 4.78565 97 115 111
0.426958 0.860651 4.84631 106 127 125
0.464679 0.617317 4.67296 96 114 110
0.465547 -0.157868 5.10622 254 249 251
0.259015 -0.190141 5.18335 240 102 113
0.376129 0.255883 4.39444 21 20 51
0.402089 -0.100899 5.0096 255 248 220
0.239552 -0.186183 5.18024 245 183 177
0.123286 -0.0975435 5.20781 226 176 92
0.380231 -0.193505 5.16689 191 135 75
0.380231 -0.193505 5.16689 191 135 75
0.151779 0.0759868 5.37019 245 223 99
4.41928 2.6567 -0.531656 154 147 157
0.431456 0.181833 4.04669 84 75 71
0.39816 0.291877 4.3984 26 21 55
0.325356 0.253029 4.1012 177 179 191
0.425686 0.132445 4.02958 131 115 98
0.508864 -0.106946 5.0163 123 181 168
0.530381 0.261246 4.43213 126 132 142
0.392745 0.525744 4.14281 124 136 129
0.523008 0.232719 4.39658 222 228 211
0.413969 0.164438 4.05141 249 249 245
0.491357 0.33061 4.08325 129 123 105
0.58806 0.312388 4.35343 140 141 153
0.508071 0.427073 4.49078 15 23 47
0.508071 0.427073 4.49078 15 23 47
0.48133 0.292479 4.06572 133 132 133
0.35463 -0.192048 5.31394 212 110 75
0.488783 0.253364 4.03907 242 250 252
0.612461 0.939178 4.84981 206 209 190
0.467094 0.30878 4.09241 250 240 215
0.349896 0.196067 4.16176 240 247 253
0.669117 0.564187 4.31809 30 59 69
0.632308 0.255933 4.27645 35 56 58
0.771693 0.610841 5.71428 127 174 152
0.640994 0.410881 4.34163 15 26 36
0.641762 0.410136 4.34222 14 23 33
0.534901 0.299446 4.39287 27 27 42
0.638304 0.415694 4.37438 9 20 39
0.580036 0.431841 4.46772 13 17 43
0.663375 0.822883 4.59594 81 106 108
0.660805 0.70335 4.60847 92 118 116
0.652316 0.724177 4.60386 92 115 111
0.737893 1.12161 4.80386 63 80 79
0.697021 0.810635 4.59876 72 97 96
0.594111 0.432722 4.16544 43 56 55
0.594111 0.432722 4.16544 43 56 55
0.627785 0.247226 4.14714 72 95 94
0.611193 0.255284 4.07083 45 66 58
0.611193 0.255284 4.07083 45 66 58
0.509594 0.432413 4.50354 10 13 30
0.650828 0.33904 4.23199 11 18 37
0.663275 0.447156 4.31703 222 196 170
0.499812 0.188112 3.99297 71 83 75
0.605816 0.308125 4.32455 5 18 34
0.630412 0.363184 4.32887 14 15 34
0.631581 0.362032 4.32936 14 17 34
0.507503 0.297217 4.05492 88 87 75
0.359621 0.225819 4.20537 74 73 66
0.744391 1.31071 4.76507 117 195 187
0.659836 0.469608 4.34823 4 26 35
0.676961 0.548733 4.3802 11 16 31
0.677064 0.548135 4.38018 12 16 34
0.600966 0.659111 4.64468 80 93 84
0.406329 0.143583 5.55663 204 119 58
0.408271 0.235656 5.62079 237 222 178
0.596697 0.334552 4.36846 14 17 35
0.587805 0.313722 4.35395 122 117 120
0.495358 0.914345 4.78088 73 92 89
0.666064 0.340396 4.25113 1 23 26
0.653808 0.432683 4.34202 206 42 46
0.658493 0.427215 4.34479 191 42 56
0.430203 0.226223 4.03874 246 243 244
0.464835 0.167295 3.99878 107 96 78
0.995937 1.22396 4.77133 104 129 108
1.10911 1.27152 4.66432 111 161 144
1.10393 1.28188 4.66263 114 160 140
0.667128 0.563128 4.40579 10 15 33
0.416696 0.265396 4.18754 255 252 210
0.698425 0.802457 4.55836 93 110 98
0.698425 0.802457 4.55836 93 110 98
0.676043 0.87812 4.6205 94 110 98
0.577148 0.962946 4.87986 110 107 93
0.409411 0.45951 5.77518 158 143 60
2.09779 1.143 4.79107 146 182 157
0.542868 0.479909 5.67721 227 207 68
0.50301 0.516381 5.73843 232 205 63
0.664694 1.32843 4.81494 80 95 81
0.631417 0.613946 4.64215 78 86 77
1.23049 0.729036 5.48393 150 217 184
0.37093 0.48854 5.81388 223 193 61
0.731808 1.01101 4.6696 83 100 91
1.02672 1.3408 4.58965 118 165 139
0.56892 0.301158 4.35667 14 14 31
0.616431 0.249469 4.07857 56 58 44
2.01957 1.00077 5.01506 145 184 158
0.648425 0.381822 4.29684 8 19 29
1.60454 0.752254 5.43924 140 191 161
1.91298 0.934072 5.12614 141 188 160
0.180023 -0.212704 5.26411 248 246 252
0.712655 1.31078 4.74869 34 69 47
0.336591 0.0724538 5.55427 241 227 126
0.660849 0.425624 4.30376 10 18 26
0.448212 0.266338 5.61927 246 238 173
0.448212 0.266338 5.61927 246 238 173
0.638272 0.394145 4.15883 7 26 37
0.747588 1.22255 4.816 59 71 56
1.07578 1.30817 4.65329 113 152 131
0.990794 1.32972 4.62237 105 160 140
0.648417 0.382016 4.297 8 20 28
0.643231 0.413562 4.37313 8 16 25
0.526246 1.21709 4.80465 122 135 107
0.710841 0.767266 4.51498 39 52 41
0.698832 0.8333 4.51264 89 103 91
0.770588 0.61236 5.71554 120 154 125
0.383768 0.247498 4.17053 121 112 100
0.960995 1.20796 4.82769 136 195 161
0.398695 0.0207504 5.4712 197 176 65
0.723825 1.01011 4.59604 46 74 62
0.620628 0.232721 4.13759 242 234 204
0.620628 0.232721 4.13759 242 234 204
0.763864 1.15409 4.78843 83 96 78
0.874139 1.7227 4.02079 93 123 107
0.657565 0.368143 4.2232 214 45 47
0.619892 0.201501 4.14352 37 43 24
0.456664 0.418349 5.7219 202 189 59
1.54427 0.742237 5.45137 137 188 157
0.521075 0.443307 5.68034 164 149 51
0.372461 0.104767 4.13916 77 69 63
0.372461 0.104767 4.13916 77 69 63
1.21422 0.578728 5.71769 132 182 149
